0.06765041 -0.1589819 0.2950339
0.06276342 -0.1547173 0.3415886
-0.1105807 -0.1686619 0.4093575
-0.04629303 -0.1624507 0.2741305
-0.0728536 -0.1647624 0.360048
0.07872896 -0.1580601 0.3061047
0.06864099 -0.1475975 0.3686267
0 0 0
0.04092353 -0.1565301 0.3118028
-0.05239813 -0.07267216 0.6298743
0.05750761 -0.138865 0.635692
0.237406 -0.1201001 0.8677981
0.1095074 -0.1507313 0.4689144
0.1264644 -0.1375484 0.8175608
-0.05458923 -0.0749784 0.6435893
0.2845933 -0.190049 1.171315
0.2395103 -0.01873971 0.5902569
0.1287243 -0.1808437 1.354255
0.2114253 -0.01164972 0.602514
0.2308996 -0.04387861 0.6187943
0.216543 0.0006850474 0.6165936
0.2284203 0.01416599 0.6260791
0.2377993 -0.04049845 0.6314524
0.2186432 -0.004754484 0.5963559
0.2171751 -0.03866307 0.6212885
0.2224811 0.08818866 0.6356459
-0.0483443 -0.1643523 0.2809199
-0.07562865 -0.1660181 0.3663061
-0.05450553 -0.1624019 0.4197626
0.08581564 -0.1688198 0.3173788
-0.1239901 -0.1626146 0.4228135
-0.1732769 -0.1691216 0.5582139
-0.06076635 -0.1665218 0.364263
-0.1736977 -0.1163525 0.5319276
-0.2127551 -0.163408 0.4757521
-0.03530717 -0.1602696 0.2996086
0.07831892 -0.1631635 0.3176804
-0.05539787 -0.1629843 0.420965
-0.07548787 -0.1651385 0.3648164
-0.04800862 -0.1630862 0.279182
0.0228532 -0.1509998 0.5920048
0.05829363 -0.1459844 0.6024507
0.05185908 -0.1486774 0.5770922
0.03586776 -0.1640849 0.3020514
1.148446 0.09018413 12.59
0.1331588 0.03030197 1.399809
0.09298596 0.0935728 1.283913
0.07252104 -0.1612853 0.3118262
0.06708401 -0.1512032 0.3523761
0.02957841 -0.1536739 0.6267937
0.009490103 -0.1549594 0.4182994
0.05633262 -0.1540255 0.3537498
0.04976238 -0.153353 0.4385061
0.07798607 -0.1606817 0.4250304
0.03986608 -0.1596148 0.3099947
0.0464134 -0.1546713 0.3512337
0.06759787 -0.1550314 0.3399606
0.02910618 -0.1514019 0.331031
0.03859604 -0.1582999 0.3074887
0.07768875 -0.1391316 0.3255103
0.1175714 -0.1237863 0.7625703
0.07288206 -0.1502141 0.323025
0.08472179 -0.1396762 0.3161057
0.08230506 -0.1523073 0.3204776
0.03724506 -0.1582603 0.2807371
0.0263107 -0.1451003 0.3975835
0.03387872 -0.148603 0.5009764
0.1266662 -0.1216031 0.7887568
0.09540153 -0.1469309 0.4392729
0.06357708 -0.1431484 0.3219605
0.07903903 -0.1414942 0.3331915
0.08354902 -0.1494237 0.4297596
0.03040423 -0.152899 0.3224226
0.2797173 -0.1440833 0.510087
0.2691611 -0.1471052 0.4926941
0.2793539 -0.1439926 0.525922
0.3047526 -0.139628 0.564086
0.04340281 -0.1566752 0.3166671
0.0418597 -0.149125 0.3426854
0.1079675 -0.1495284 0.4740395
0.08330534 -0.1513132 0.3095245
0.1085335 -0.1382248 0.3236636
0.1131535 -0.1484184 0.366661
0.1060118 -0.1379603 0.3139399
0.2979195 -0.1263377 0.6361773
0.2759496 -0.1399612 0.5420513
0.2183027 -0.03668413 0.5731257
0.2266518 -0.1486382 0.4740565
0.2391409 -0.1247224 0.6260409
0.2116985 -0.02088955 0.5688446
0.2186396 -0.07229152 0.5764105
0.1943454 -0.1528333 0.419397
0.1934226 -0.1232485 0.5982928
0.2016314 -0.124418 0.6095825
0.1752552 -0.1472873 0.511797
0.1792272 -0.1429246 0.5336212
0.2225294 -0.1485005 0.4674594
0.1415781 -0.1519614 0.4357518
0.2701942 -0.1461632 0.367914
0.2761894 -0.1386405 0.5749594
0.08899038 -0.1550944 0.2980166
0.2296657 -0.1436607 0.5367388
0.4111568 -0.131761 0.546667
0.1734144 -0.1508823 0.3928574
0.2165739 -0.1000909 0.2612621
0.1508494 -0.1558463 0.1927485
0.1056429 -0.1427028 0.3632792
0.2251931 -0.1074518 0.2689152
0.2561617 -0.1435328 0.5522844
0.09423408 -0.1459826 0.3863776
0.1905284 -0.1193434 0.2297829
0.245988 -0.1571822 0.400589
0.1706673 -0.1493799 0.447522
0.1624212 -0.1467133 0.5860275
0.1554843 -0.1521985 0.2078973
0.1752527 -0.1417003 0.5156317
0.4202424 -0.04834028 0.4476769
0.2007847 -0.1153055 0.6514533
0.1944072 -0.1243552 0.6943905
0.1941521 -0.1064382 0.2827466
0.3036627 -0.1072279 0.2603423
0.3218852 -0.1061878 0.2559211
0.1796899 -0.1449696 0.8223274
0.1787092 -0.1155917 0.2947087
0.3082072 -0.1551334 0.3587008
0.501753 -0.1464995 0.4281513
0.1729198 -0.1389304 0.7926415
0.3875048 -0.1557954 0.4422867
0.3649589 -0.1222843 0.2104043
0.3014349 -0.1627482 0.1428913
0.2935315 -0.1269564 0.1809656
0.2861633 -0.1566056 0.1021633
0.142328 -0.1630119 0.08457862
0.28123 -0.1620944 0.07822774
0.1102226 -0.1569833 0.3333674
0.1957383 -0.1510673 0.4102654
0.3459 -0.1415077 0.4325248
0.1805841 -0.1198674 0.2948956
0.2902256 -0.1516415 0.3316955
0.289696 -0.108569 0.2671016
0.4036728 -0.1533502 0.4357366
0.3630332 -0.1343997 0.2914285
0.3617912 -0.134743 0.3368777
0.2544867 -0.1269712 0.1880756
0.1743145 -0.1299326 0.1825434
0.2206301 -0.1138015 0.2519493
0.2676929 -0.1202984 0.2254494
0.2166779 -0.1592508 0.1558751
0.2250645 -0.1135556 0.2845769
0.2484448 -0.1549868 0.4925201
0.2636445 -0.1176589 0.247596
0.1976015 -0.1559301 0.468559
0.2244228 -0.114273 0.2528319
0.2029509 -0.1174015 0.2404309
0.2304255 -0.1254861 0.2125285
0.1983968 -0.1308559 0.1796938
0.2298956 -0.120311 0.2316988
0.2476882 -0.1168202 0.2255203
0.2147457 -0.1291393 0.2560155
0.265564 -0.1123411 0.2647114
0.1865432 -0.1272557 0.1998961
0.1966076 -0.129953 0.1734657
0.2420295 -0.1120315 0.2469382
0.1966041 -0.1559813 0.4719054
0.2066509 -0.1566638 0.4223037
0.2802938 -0.1059165 0.2659678
0.1739095 -0.1575899 0.4060915
0.2116142 -0.1250818 0.2157585
0.2177431 -0.1272801 0.1947136
0.227432 -0.1363183 0.1931106
0.283172 -0.1072762 0.2563892
0.1966339 -0.1628326 0.4349836
0.2345957 -0.1186197 0.2500046
0.2322382 -0.1202071 0.2368
0.1477725 -0.1600727 0.4046507
0.1653671 -0.1571289 0.265182
0.1643764 -0.1570978 0.2676065
0.3085429 -0.15714 0.3593858
0.1004893 -0.1487304 0.374274
0.1148473 -0.162583 0.3217351
0.2542199 -0.1543368 0.4873625
0.08264016 -0.1613912 0.3247657
0.1026804 -0.154912 0.4640756
0.07933622 -0.1597856 0.3330353
0.1114301 -0.1563233 0.3342019
0.1119245 -0.1533224 0.380453
0.09574509 -0.1552041 0.4643488
0.08834384 -0.1605901 0.3309361
0.2241967 -0.1556439 0.4856969
0.2356044 -0.1574965 0.4329293
0.1961006 -0.1102328 0.283892
0.1407651 -0.1514037 0.5196152
0.08151135 -0.1475288 0.3313219
0.2274606 -0.1562672 0.4938418
0.216142 -0.1241296 0.6311526
0.2587664 -0.1506466 0.4917305
0.3224924 -0.142051 0.5646307
0.200424 -0.1602322 0.1566833
0.1513521 -0.1576486 0.3709021
0.2038604 -0.1475856 0.5533995
0.1620726 -0.1542508 0.4492509
0.2261622 -0.1089736 0.2690521
0.2464662 -0.1362941 0.1891517
0.2362189 -0.1257822 0.1865807
0.2393433 -0.1252326 0.2341965
0.1973188 -0.1289811 0.1777546
0.2244554 -0.1105283 0.2484854
0.2614242 -0.1100442 0.2406929
0.2420606 -0.1058378 0.2731613
0.2296677 -0.1346299 0.1950464
0.2616534 -0.1067379 0.270935
0.209331 -0.117401 0.2323453
0.2612397 -0.1138795 0.2450444
0.2458371 -0.1068059 0.2734992
0.2482502 -0.1211019 0.2053786
0.2424481 -0.1094472 0.2438421
0.2773638 -0.1099522 0.2380722
0.2345849 -0.1291476 0.1824705
0.2199976 -0.1250844 0.2371771
0.2673369 -0.1193166 0.2082
0.2706415 -0.1074476 0.2698338
0.2541514 -0.1248096 0.179251
0.3294173 -0.1069825 0.2471712
0.3041987 -0.1161568 0.2145017
0.3169282 -0.1056465 0.258656
0.2998998 -0.1102988 0.234786
0.2584861 -0.12512 0.2298527
0.2583455 -0.1100481 0.2413053
0.2847983 -0.1367026 0.1821368
0.2012672 -0.1250399 0.2403909
0.2339249 -0.1261271 0.1980577
0.2292977 -0.1175976 0.2293396
0.2668533 -0.116846 0.2221556
0.2771529 -0.124185 0.225045
0.2540115 -0.1230715 0.1845307
0.1973928 -0.1300678 0.1743496
0.3105057 -0.1080854 0.2613401
0.2205267 -0.1322117 0.2123166
0.3117187 -0.1079258 0.2511507
0.285886 -0.1172151 0.2198559
0.2455458 -0.1089095 0.2658262
0.3330154 -0.1444522 0.4049713
0.2580134 -0.1163847 0.2283334
0.2551697 -0.1247613 0.1788416
0.3051793 -0.1201594 0.1944621
0.2782269 -0.1262326 0.2044939
0.3493211 -0.1080269 0.2446049
0.3372269 -0.1103319 0.2273468
0.3084219 -0.1056295 0.2597433
0.2856228 -0.1159041 0.2186912
0.3178353 -0.1097661 0.229931
0.2739879 -0.1246244 0.18191
0.2735472 -0.1227265 0.1802314
0.3266828 -0.1055853 0.2562539
0.2659384 -0.1313689 0.1889042
0.3599738 -0.1214793 0.286067
0.3470036 -0.1066414 0.2547287
0.3053989 -0.1063033 0.2632264
0.2528505 -0.1236028 0.177798
0.4818978 -0.1477182 0.5119612
0.35563 -0.1071993 0.2534341
0.5113533 -0.1522175 0.4333581
0.3235023 -0.1167813 0.2103802
0.3658363 -0.1065166 0.2508906
0.2929723 -0.1237614 0.1779638
0.3164788 -0.1275743 0.1985943
0.3678532 -0.1077214 0.2407552
0.3532861 -0.1104479 0.2244875
0.3346022 -0.1263421 0.1939483
0.3242563 -0.1196761 0.1899531
0.3419204 -0.1161067 0.2075607
0.3740522 -0.1064869 0.2488099
0.3598257 -0.1030561 0.2514578
0.371051 -0.1139744 0.2372025
0.3619911 -0.1211748 0.1849662
0.3035153 -0.1305277 0.1817189
0.3147721 -0.1230704 0.2170649
0.3254762 -0.1222965 0.1923021
0.3370876 -0.1116157 0.2277526
0.4088807 -0.1068186 0.2460619
0.3172368 -0.1099673 0.2293575
0.4021914 -0.1064534 0.244088
0.3948107 -0.1077714 0.2476831
0.3211475 -0.1084202 0.2557724
0.402419 -0.1506348 0.4314356
0.4602407 -0.1537592 0.5452659
0.4302979 -0.1526178 0.5923642
0.3225862 0.04097943 0.5258946
0.363974 -0.1228945 0.532052
0.3639884 0.03918491 0.4981674
0.3319113 -0.134046 0.6336681
0.2864602 -0.1154717 0.5355493
0.2862423 -0.1292551 0.5875089
0.2048546 -0.1499215 0.4158376
0.2816255 -0.1212549 0.6023424
0.1959686 -0.1564827 0.4167773
0.1927278 -0.1498005 0.4154249
0.2205846 0.03878034 0.5934734
0.2084118 0.002962723 0.5625403
0.1581768 -0.1185816 0.5320994
0.1979971 -0.1062857 0.6782615
0.2170672 0.1100612 0.5929588
0.2045155 0.04927814 0.5990022
0.2040091 0.006102875 0.6209
0.2162656 0.1550155 0.6269985
0.2211979 0.1448354 0.6129389
0.2171797 0.2082641 0.6158434
0.2946285 -0.1238589 0.6404729
0.2973374 -0.1332337 0.6454511
0.2204459 -0.1473887 0.4717309
0.2220705 -0.1242255 0.6240461
0.1997862 -0.1045919 0.6242613
0.1928757 -0.1241478 0.6093634
0.2103771 -0.01940931 0.5676149
0.2259895 0.04392633 0.5960816
0.2130938 0.01926731 0.5730587
0.21232 0.05444088 0.5639395
0.1818011 -0.1243814 0.7738033
0.1947816 -0.09582585 0.6038759
0.2183343 0.1934446 0.630486
0.2268877 0.1545131 0.6153821
0.2114851 0.03541857 0.6011742
0.1215758 0.0876095 1.203613
0.2236294 0.1707546 0.5830612
0.2376668 0.2291869 0.5856597
0.1664245 -0.06642471 0.7828971
0.1264542 -0.1598057 1.268099
0.09366239 -0.1492161 0.4526484
0.1201536 -0.1603068 1.241421
0.08450397 -0.1348079 0.4169458
0.1241785 -0.1188057 0.79693
0.2166872 -0.03878619 0.5815426
0.1058113 -0.1461914 0.3678893
0.1189587 -0.1251094 0.809546
0.09974203 -0.1534883 0.4251251
0.1300252 -0.08769634 0.764353
0.1393852 -0.05702753 0.7275427
0.09509622 -0.1487114 0.3910601
0.2737452 -0.1105611 0.6270623
0.09279174 -0.1452855 0.3843036
0.08662188 0.09348667 1.075475
0.05488466 -0.1340624 0.5558158
0.1443204 -0.09947746 0.7689852
0.1928629 -0.1366333 0.4437798
0.2364522 -0.1526262 0.4332753
0.1731993 -0.1470612 0.5198566
0.1009306 -0.1349366 0.3575023
0.2288094 -0.155432 0.4322886
-0.0628951 0.07802444 1.138113
-0.07844 0.06669604 1.109458
0.001536995 0.08834155 1.097711
0.2172208 0.09248725 0.6010223
-0.009121925 0.09135164 1.137457
0.007136241 -0.06979744 0.6927562
0.02821809 -0.03102712 0.6594672
-0.07718652 -0.1576379 1.040625
0.1956137 -0.1276539 0.7078454
0.02559727 -0.1479838 0.5241259
-0.006883249 -0.1408664 0.6352718
0.0256874 -0.1522685 0.5317079
0.03112563 0.09227712 1.164456
0.07575367 -0.1567096 0.8810143
0.1415991 -0.1512676 0.5225446
0.05448578 -0.1562761 0.6368471
0.007656597 -0.1543034 0.4214144
0.05110355 -0.1547781 0.3714787
0.0631255 -0.1364906 0.8513648
0.06119322 -0.1508108 0.6189045
-0.08236429 0.1374682 1.140915
-0.002037756 -0.1501577 0.6526984
0.2120162 0.07434914 0.6114296
0.0588599 -0.03753921 0.6164864
0.1866693 -0.1229975 0.6600435
0.02032605 -0.1457044 0.6287495
0.2198245 0.1596944 0.6141958
0.2259315 0.1353361 0.6045123
0.06516434 -0.1446127 0.3681737
0.0648081 -0.1539969 0.3596046
0.1727429 -0.1583508 0.4075998
-0.05883679 -0.1547024 0.949766
0.05969827 -0.1626283 0.871062
-0.01971318 -0.02231736 0.6124458
0.1577545 -0.1033063 0.7419656
0.1079775 -0.1412514 0.3298022
0.06029258 -0.1539842 0.3571341
0.1710626 -0.1536244 0.4562751
0.1698554 -0.1456663 0.4410973
0.05396395 -0.15866 0.3638356
0.03980941 -0.1534816 0.3548573
-0.003490269 -0.1513187 0.4273447
0.5228603 -1.123865 8.849874
0.2120686 0.02169523 0.5876892
0.2557324 -0.4089612 6.988132
0.1087412 -0.1590673 0.4378882
0.237631 -0.1227966 0.629788
0.1791228 -0.1250709 0.5983032
0.1034162 -0.1472848 0.4517205
0.1102113 -0.1547689 0.3773108
0.1624163 -0.1101035 0.7013198
0.09537561 -0.1408981 0.3244593
0.121156 -0.1595983 0.4806006
0.2232629 0.03333928 0.5928472
0.09666166 -0.1461361 0.4501536
0.1120876 -0.1484984 0.3729068
0.1670825 -0.08654124 0.8735801
0.08352738 -0.1352414 0.3717607
0.1367173 -0.07093441 0.7986176
0.1718005 -0.1566176 0.4053677
0.1043909 -0.1463469 0.3774117
0.1793069 -0.1237013 0.3020995
0.2053809 -0.1542564 0.4202267
0.2212258 -0.1515215 0.4768387
0.2043087 -0.1527414 0.5625712
0.08123415 -0.1464303 0.3303324
0.08017391 -0.1521499 0.3246099
0.07169709 -0.1512916 0.3269007
0.06968369 -0.1457251 0.3741775
0.1526567 -0.1689569 0.5466685
0.06644756 -0.1452105 0.3213358
0.08424127 -0.1343827 0.4151307
0.08053552 -0.1455017 0.3859805
0.0730655 -0.1500988 0.4063497
0.03606858 -0.1437999 0.3451804
0.04969562 -0.153903 0.3507543
0.1705052 -0.1435629 0.2959217
0.03487285 0.09583907 1.100163
0.2268116 -0.1905307 1.052771
0.02193953 -0.1511404 0.3310135
-0.08072317 0.2999088 0.6626673
-0.08049069 0.3298915 0.6577219
-0.08423652 0.3523384 0.6664907
0.204206 0.005283758 0.5813354
0.09280013 -0.1451751 0.4456917
0.0893915 -0.1440779 0.4054885
-0.01294742 0.09024395 1.150166
-0.08218561 0.3409497 0.6626775
-0.07898363 0.3121514 0.6554892
0.02604224 0.4589064 1.09688
0.02527519 0.3866915 1.09262
-0.1253695 -0.133026 0.5047237
0.03010409 -0.04867412 0.6013432
-0.01716019 -0.04194088 0.595605
0.0434897 -0.1458522 0.5782417
0.05440532 -0.1413151 0.605346
0.05283467 -0.1508759 0.3546932
0.05901857 -0.1424212 0.6025667
-0.02458839 -0.1360185 0.4378121
0.04871491 -0.1434696 0.5729066
0.03838089 -0.1420035 0.5980066
-0.07026258 -0.1620242 0.5540271
0.09387212 0.3871341 1.103304
0.03119287 0.3787786 1.084956
0.05227391 0.4617637 1.104622
0.03104507 0.3296007 1.093295
-0.09001727 0.3801115 0.6932888
-0.09164293 0.355101 0.6867591
0.002226034 -0.1375846 0.8137659
0.09850259 0.4823652 1.156362
0.07965684 0.09378341 1.09558
0.03582482 0.4819442 1.174972
0.1476444 -0.07812963 0.7127815
-0.0003196932 -0.1151838 0.856064
-0.0134546 -0.1345185 0.8318901
0.1120934 -0.1550023 0.3788725
0.03478245 -0.1355482 0.5981201
-0.06705911 0.4689053 1.164378
-0.07580604 0.4290115 0.6990821
0.1429499 0.462434 1.076357
-0.119001 0.3817009 0.6905048
-0.1866837 0.01422496 0.5494631
0.03659748 -0.1612148 0.3626524
0.09346581 -0.1495805 0.3340899
0.08350823 -0.1504974 0.3354597
0.07835758 -0.1361476 0.329907
0.02742842 -0.1544912 0.3290979
-0.1221666 -0.1428551 0.483132
-0.0629275 -0.1512481 0.5824447
-0.07747695 -0.153104 0.4268497
0.02738264 -0.1555286 0.3861609
0.09317565 -0.1495613 0.4552729
-0.1497797 -0.1492924 0.4809385
0.1911665 0.4857029 1.138632
0.2521594 0.466296 1.051601
0.2303592 0.4617317 1.032573
-0.01337516 -0.04012538 0.6524841
-0.05310663 -0.1574859 0.2822837
0.2358831 -0.1463675 0.8284897
0.1863467 -0.1248455 0.6773326
-0.03502245 -0.1020984 0.5986031
0.2254034 0.0968622 0.6886057
0.2173018 0.05015978 0.5933814
0.224071 0.1371976 0.6024656
0.2140367 0.1662717 0.6825477
0.2229924 0.118225 0.601903
0.347924 0.4633461 0.9976441
0.174044 -0.1571701 0.4087927
0.1762484 -0.1279 0.7286799
0.05672716 -0.1534297 0.3056195
0.20332 -0.1167011 0.6526374
0.1875277 -0.1206781 0.6182916
0.1944692 -0.1230228 0.6083795
0.23837 -0.1075353 0.6986068
0.213276 -0.03116564 0.5614157
0.2110764 -0.001818687 0.5794085
0.2081822 -0.02025124 0.5689552
0.2200398 -0.1220722 0.6181288
0.3339598 -0.1401317 0.7599767
0.2773667 -0.1463325 0.5617897
0.2205096 -0.1434964 0.4682428
0.2540506 -0.140646 0.5438415
0.2745456 -0.1429611 0.5271145
0.3204719 0.04193188 0.5195825
0.4203232 -0.05008225 0.4463217
0.3705382 0.03702028 0.5145468
0.5656322 -0.1268919 0.409761
0.4486928 0.2295054 0.4724381
7.809757 -0.6892164 6.084261
8.961315 -1.033248 7.031919
10.29029 3.502234 8.20265
5.538877 1.703476 4.286464
0.4609738 -0.1499227 0.1077572
0.2355871 -0.10848 0.275945
0.1968322 -0.1287148 0.1644434
0.3593338 -0.1511793 0.06974043
0.5036114 -0.1131833 0.1771912
0.5178501 -0.1189795 0.2330429
0.2932558 -0.1300878 0.158312
0.2985928 -0.1638091 0.1409697
0.3296174 -0.1286218 0.1720073
0.2225069 0.04835427 0.5796661
0.2940857 -0.1249374 0.6401886
0.2683018 -0.130923 0.5651867
0.4111253 0.04581644 0.4708185
0.3751431 0.0447118 0.4977451
0.3538162 0.1320128 0.5513451
0.3372414 0.07873124 0.5222477
0.3440914 0.1374242 0.5374981
0.4205989 -0.1416584 0.5627687
0.4114508 -0.1321012 0.5536846
0.4926077 -0.1162976 0.5220494
0.352601 -0.1538733 0.4463952
0.3723983 -0.126983 0.4974869
0.4297998 0.05036327 0.467925
0.7561461 0.4525706 0.8037112
0.2192155 -0.1457752 0.4678062
0.3516867 0.2214287 0.550457
0.8536204 0.3808554 0.7683058
0.5266528 0.1370555 0.4277297
0.5477601 0.2213474 0.4367335
0.5163868 0.2126691 0.4420718
0.5049587 0.2101793 0.4351026
0.5157065 0.07934469 0.4126777
0.2235253 0.1362549 0.5947823
0.2204498 0.1184959 0.5856595
0.2204795 0.1053327 0.5919964
0.2209983 0.08331552 0.6060716
0.2100385 0.05987583 0.5826401
0.2114733 0.03057088 0.5790216
0.2154264 0.06844911 0.5750918
0.1834946 -0.1395883 0.6284221
0.1831156 -0.1178216 0.6506469
0.2176188 -0.1201787 0.5921592
0.16523 -0.1550602 0.598732
0.3176717 0.03476678 0.5239542
0.2149709 -0.02526757 0.5570399
0.1697461 -0.1160451 0.6730042
0.2747061 -0.1430368 0.5534443
0.3905795 0.04680511 0.4818068
0.1429433 -0.09040734 0.73765
0.3534476 0.04772156 0.5006692
0.2150585 0.1131386 0.5849347
0.3900045 0.04949385 0.4722911
0.3294255 0.04840812 0.5086226
0.3829235 -0.1378604 0.4983141
0.3705465 -0.1293029 0.4984564
0.3145983 0.05075446 0.5135327
0.2071348 0.08917998 0.5860943
0.2086658 0.1001558 0.5920442
0.1594586 -0.1165826 0.6962903
0.1716518 -0.115808 0.7017487
0.1936293 -0.1130834 0.6421443
0.4011784 0.0490558 0.4668141
0.3675864 -0.1299578 0.5397866
0.227269 -0.01422825 0.5628595
0.4771416 -0.1445142 0.5085389
0.4251714 0.0506148 0.4625401
0.2120968 -0.08701319 0.5941412
0.3027614 -0.1401576 0.5716137
0.3327858 0.0561008 0.5124578
0.2433046 -0.1176376 0.6046437
0.5149404 -0.03356737 0.4057253
0.2128728 -0.1169544 0.617896
0.4781731 -0.1479191 0.5172563
0.3232644 -0.03456816 0.5143439
0.2656205 -0.1390726 0.6022164
0.2874977 -0.1341524 0.5962089
0.3901303 0.05244893 0.4889849
0.5358677 -0.1445973 0.4234404
1.350284 0.2141119 -0.002659038
1.368659 0.1402717 0.02345631
1.383011 0.1782004 0.02594517
0.7969885 -0.08478495 -0.02212641
1.248754 -0.1356756 0.02422617
0.814965 -0.08740747 -0.02311146
0.5864568 -0.1405491 -0.005111724
0.7324293 -0.08111027 0.00250946
1.339647 0.1374675 -0.03280278
1.374323 0.1985854 -0.06191318
1.303038 0.1248392 -0.03258097
1.31859 0.1073209 -0.0507128
1.362721 0.1392197 -0.0146264
1.341972 0.2015101 -0.009276047
0.6574241 -0.1484078 0.1725427
0.6615272 -0.1483716 0.1863428
0.6597134 -0.154449 0.185045
0.6841242 -0.156899 0.1997269
0.6422145 -0.1552965 0.1868627
0.7013912 -0.1611801 0.2233564
0.6393886 -0.1566983 0.194493
1.249183 -0.162418 0.4747281
1.335549 -0.2167148 0.5822306
0.8133696 -0.1452271 0.1692338
0.8629965 -0.1481044 0.1791013
0.8164845 -0.1515444 0.127
0.7730465 -0.1474834 0.1293261
0.7190108 -0.1521125 0.1113419
0.7625757 -0.1465281 0.137902
0.7911257 -0.1467519 0.1358778
0.8077894 -0.1486809 0.1906925
0.6334474 -0.1501843 0.08244251
1.072681 -0.1438226 0.2609996
0.7922115 -0.149462 0.1274959
0.6205227 -0.162645 0.09506403
1.197689 -0.1486232 0.2679889
1.066273 -0.1457271 0.2883534
1.076145 -0.1407014 0.2473836
0.6281782 -0.1581898 0.08410557
0.7224683 -0.1454599 0.18103
0.8689811 -0.1439291 0.1693639
0.6273877 -0.1569533 0.1177033
0.8094715 -0.1502214 0.1869451
0.6897126 -0.1510542 0.1229833
0.6565279 -0.1482579 0.09963909
0.7883573 -0.1454666 0.1751706
0.8213806 -0.1527406 0.1642745
0.7769781 -0.1445576 0.161484
0.8373268 -0.1542019 0.1870028
0.6261203 -0.1535457 0.093366
0.6821157 -0.1572567 0.1166695
0.7785062 -0.1408532 0.1552718
0.7140468 -0.1490078 0.1119364
0.7593946 -0.1402122 0.09870428
0.8996216 -0.1103188 0.1374551
0.8185164 -0.1576128 0.1257171
0.8931977 -0.09628083 0.1184996
0.7195186 -0.1544893 0.09575506
0.7465769 -0.1456579 0.1093482
0.6190249 -0.1529354 0.09529592
0.8153694 -0.1393496 0.1023599
0.6366655 -0.1491499 0.06946792
0.7900107 -0.1391792 0.1353219
0.6368528 -0.1520381 0.05730201
1.075328 -0.1505304 0.3175169
0.6444176 -0.1509315 0.07690138
0.635074 -0.1495352 0.1075613
0.7393535 -0.146414 0.0967354
0.7198037 -0.1591414 0.06642663
0.8339614 -0.1469667 0.1953165
1.113093 -0.1497643 0.129069
1.074636 -0.1417028 0.1629872
1.051144 -0.1458761 0.1698332
0.7200606 -0.1434435 0.07419956
0.7158198 -0.14309 0.07268901
1.339232 0.05676852 0.04584748
0.602343 -0.1185191 -0.01527987
0.7758016 -0.08250189 0.006654844
1.279948 -0.1306969 0.07302526
0.7266681 -0.0795868 0.008910626
0.9870827 -0.14966 0.2865939
1.297878 0.03400454 0.01290758
1.356473 0.1866643 0.03968203
1.341352 0.1857563 -0.008981973
1.312295 0.08153117 0.01509306
1.356418 0.185543 0.01342033
1.343872 0.1329693 0.03024055
1.346738 0.1944024 0.002255172
1.373304 0.1581623 0.03996803
1.281682 -0.1297612 0.05546439
0.770057 -0.08344579 0.01141255
0.7646276 -0.07888436 0.01456636
0.7757133 -0.07774019 0.004510239
0.6027883 -0.1166748 -0.01733935
1.282561 0.08158094 -0.0492487
0.6586646 -0.1042654 -0.06021746
0.7459838 -0.08650385 -0.0583206
0.776668 -0.138407 0.1435007
0.8726411 -0.09626144 0.1167804
0.763867 -0.0897135 -0.06427567
0.7567438 -0.08271445 -0.0464168
0.7767376 -0.08870706 -0.05975831
1.318105 0.1320057 -0.02607277
1.278158 0.03066181 -0.04147892
1.340907 0.2069739 -0.02887702
1.292584 0.02925648 -0.02540141
1.28933 0.08279547 -0.03573437
1.304339 0.1309253 -0.05647793
1.282399 0.05720153 -0.04147743
1.303059 0.1325394 -0.0396544
1.359207 0.1365693 0.01451622
1.086361 -0.1312333 0.1021045
1.257408 0.07300335 -0.07537226
1.25661 0.03352158 -0.06820861
1.277737 0.1307453 -0.09160797
1.2497 0.07498208 -0.09945939
1.268564 0.08084714 -0.06650089
1.324639 0.2107556 -0.06258272
0.6532534 -0.1004284 -0.06982977
1.187424 -0.1158019 -0.04771078
0.7547078 -0.08793411 -0.07854991
1.042708 -0.1510489 0.2646773
0.7594965 -0.1431972 0.1915221
1.313337 0.08010991 0.02811851
0.7077384 -0.09374584 -0.07462575
0.7070929 -0.0938859 -0.08497937
0.7660545 -0.08518972 -0.07942373
1.268157 0.07959914 -0.08460896
1.281583 -0.1539685 0.07760859
1.254477 0.06779124 -0.08711009
1.304253 0.1194021 -0.05994365
1.32436 0.2075971 -0.07010245
1.240409 0.06564173 -0.1236576
1.232903 0.05013603 -0.1213973
1.291292 0.1824803 -0.1397031
1.282605 0.1889182 -0.1476948
1.262495 0.1473811 -0.1473126
1.303322 0.2195797 -0.1265103
1.221736 0.03157483 -0.1336764
1.181578 -0.1355712 -0.1063993
0.6491441 -0.09325095 -0.07029961
1.175819 -0.1200474 -0.1247282
1.295551 -0.1294493 0.1051193
1.10836 -0.1358079 0.2718886
0.7334164 -0.09444176 -0.09426977
0.7039802 -0.09885158 -0.1167103
1.205949 0.003803924 -0.1447325
0.7078065 -0.1435968 0.04401302
0.7060738 -0.09556514 -0.1074346
1.292826 0.1801425 -0.1518403
1.259132 0.07712303 -0.1420234
1.258901 0.07747035 -0.1262387
1.27699 0.1400191 -0.1019635
1.31085 0.2100759 -0.1344221
1.236777 0.03090315 -0.1183607
1.229122 0.07542856 -0.1466821
1.268698 -0.1733439 0.2306268
1.248907 0.03067702 -0.1014288
1.239249 0.05770212 -0.1158633
1.264321 0.1213408 -0.09909087
1.326241 0.201233 -0.08653805
0.7746856 -0.08697589 -0.0764965
1.317916 0.2264902 -0.1404863
0.7434778 -0.08899631 -0.09249299
1.310599 0.217839 -0.158701
1.240898 0.1450895 -0.2066941
1.271536 0.1793088 -0.1971142
1.24233 0.1456575 -0.1944684
1.149247 -0.1153865 -0.1474767
0.7436813 -0.09519577 -0.1234713
0.7535831 -0.09553289 -0.1454245
0.7830361 -0.1096486 -0.138366
0.7100754 -0.09680305 -0.1440101
1.299681 0.1328221 -0.03951123
0.7646271 -0.1004277 -0.03551623
0.769035 -0.0958897 -0.1518676
0.7372986 -0.09665038 -0.09742156
0.7003087 -0.1045537 -0.1220533
0.7466921 -0.09915125 -0.1413006
1.260517 -0.1495048 0.43856
0.6689845 -0.1521305 0.1419414
0.66093 -0.1485594 0.118173
0.7130083 -0.1468801 0.1778247
0.7735457 -0.1501956 0.1403885
0.8591888 -0.1400745 0.1930082
0.6392047 -0.1495502 0.06249852
0.6286277 -0.1480524 0.07060663
0.7121134 -0.1469163 0.08190568
1.118647 -0.1512004 0.1634019
1.303205 0.08075927 -0.005270958
1.324894 0.08251417 0.03408784
1.320588 0.03227916 0.04320529
1.35908 0.2049685 0.008024186
1.239664 -0.1884774 0.03033763
0.7578739 -0.08134025 -0.006704405
1.250256 -0.1152593 -0.01027459
0.731903 -0.08121082 -0.02878135
0.7215838 -0.08403131 -0.02437697
1.293776 0.0765847 -0.01487187
1.331058 0.1501295 -0.009104326
0.7621683 -0.08702575 -0.05598554
0.7253223 -0.08342706 -0.02612866
0.7440723 -0.09304923 -0.06277803
1.284438 0.1488771 -0.09470049
1.193787 -0.123018 -0.09282326
1.227702 -0.1253337 -0.01271541
0.7984924 -0.08490254 -0.03357874
0.7016587 -0.09716888 -0.07052875
1.259588 0.02975246 -0.08320933
1.268157 0.1091553 -0.1218614
1.249601 0.03704588 -0.09293221
1.274406 0.06248899 -0.1060991
0.2190487 0.08340088 0.596929
-0.1489834 -0.1494738 0.3799387
0.1720985 -0.1396717 0.5050223
0.1231383 -0.1666089 1.254412
-0.05594056 0.076407 1.106041
-0.02305167 -0.05265732 0.6086916
-0.004799504 0.07709895 1.186688
-0.1304974 -0.1450599 0.5103475
-0.1879112 -0.1574998 0.3737078
-0.1824784 -0.01133521 0.5439316
-0.1587773 -0.03635199 0.5502267
-0.1482111 -0.1530232 0.4588784
-0.3292899 0.02476738 0.4867318
-0.1978524 -0.1547137 0.3902222
-0.4065816 -0.1505669 0.4162974
-0.1520518 -0.06567296 0.2250378
-0.1484951 -0.1492114 0.2206205
-0.2566807 0.04143582 0.5147858
-0.2469379 -0.1627264 0.1554107
-0.4008562 0.2750716 0.5166074
-0.3742543 0.2298962 0.4999729
-0.3617358 0.1484562 0.4931292
-0.4084585 -0.1503576 0.4017399
-0.4474838 -0.1362111 0.4424596
-0.3837957 -0.1436152 0.3590257
-0.4375508 -0.1595365 0.3654104
-0.414524 -0.1517541 0.4558493
-0.4366414 -0.1471559 0.4106766
-0.5961478 -0.1586657 0.6757416
-0.4131609 -0.1587313 0.343758
-0.4375246 -0.1449586 0.4101815
-0.3767453 0.1475744 0.4937037
-0.4331754 -0.1221154 0.3661136
-0.434137 -0.1136415 0.3810311
-0.4240589 -0.1640289 0.4048595
-0.4785237 -0.1661265 0.2448979
-0.4851362 -0.148609 0.2422926
-1.09535 -0.2021883 0.6479748
-1.395175 -0.9252495 0.7061954
-1.116996 -0.2422026 0.655441
-1.257221 -0.1817181 0.6465215
-1.455374 -0.5206711 0.7166896
-1.26058 -0.6990353 0.7421492
-1.141186 -0.5168266 0.6205214
-0.6882813 -0.1413181 0.3585198
-1.300059 -0.1889323 0.6126175
-1.256106 -0.177242 0.6544077
-1.153559 -0.2284937 0.4654656
-1.464585 0.07066919 0.7899499
-1.331349 0.1114212 0.6922125
-1.103282 -0.1954233 0.5349772
-1.25477 -0.1883931 0.5196402
-1.247222 -0.1466686 0.5210124
-1.330344 -0.6137825 0.7993794
-0.7095566 -0.15916 0.312226
-0.6417428 -0.1318362 0.3216264
-1.304854 -0.1837976 0.5992824
-1.059409 -0.2056351 0.6182472
-1.174381 -0.2568108 0.5885009
-1.360399 -0.1858723 0.4917555
-1.270424 -0.2502065 0.3247441
-1.880091 0.381109 0.8507363
-1.385126 -0.2045924 0.3879974
-2.14137 -0.0705339 0.7800341
-1.977524 -0.1717784 0.6803892
-1.821095 0.04295841 0.7490963
-2.464685 -0.07695004 0.9266517
-1.496153 -0.2079567 0.4289877
-1.945124 0.4214562 0.8513526
-1.862087 -0.1537079 0.5791936
-2.812567 -0.1393366 1.197522
-1.141849 -0.1904088 0.5669191
-1.124563 -0.1964639 0.5157541
-1.250224 -0.215494 0.7529005
-0.3860532 0.2763398 0.4924347
-0.3962588 0.2836294 0.4969115
-0.4114468 0.2863799 0.4854624
-0.387325 0.2660099 0.5172467
-0.3622003 0.1630624 0.4910588
-0.2471415 0.01536231 0.5141377
-0.3198373 0.03137222 0.4663901
-0.3390973 0.02687487 0.4751362
-0.3843329 -0.03464583 0.4661031
-0.3827049 -0.01689067 0.4368415
-0.4099759 -0.144681 0.4461094
-0.4114671 -0.1357324 0.4289231
-0.4081753 -0.1382839 0.4106656
-0.365766 -0.1412842 0.3694806
-0.3982757 -0.1396089 0.4020751
-0.3686041 -0.1402069 0.3470994
-0.3602515 -0.1423204 0.3327942
-0.3951444 -0.1350055 0.3790272
-0.3761568 -0.134567 0.3460581
-0.3928066 -0.1405753 0.3324304
-0.4004092 -0.1441 0.4091939
-0.4244294 -0.1432129 0.3766894
-0.3506301 -0.150241 0.3331177
-0.3982501 -0.1355915 0.3730743
-0.3903023 -0.1339328 0.3055432
-0.4212285 -0.1291005 0.3474663
-0.4748611 -0.1388535 0.229104
-0.332026 -0.1489635 0.3188068
-0.4251018 -0.1573441 0.2845598
-0.4715863 -0.1573526 0.2326713
-0.4826924 -0.1463078 0.2246953
-0.3628935 -0.1681247 0.2540037
-0.3472571 -0.1642522 0.2285464
-0.554653 -0.198121 0.2578705
-0.5465432 -0.4263832 0.2408429
-0.5707974 -0.3988183 0.2721079
-0.5668337 -0.4206209 0.2574679
-0.5891812 -0.4157282 0.3880054
-0.5782245 -0.3946544 0.3383412
-0.4297114 -0.453661 0.2369865
-0.2291253 -0.1789612 0.1608674
-0.4122577 -0.1721245 0.3217284
-0.3743808 -0.1758855 0.2511025
-0.1621224 -0.0476208 0.5862064
-0.09162672 -0.1803289 0.2886368
0.01562801 -0.1692422 0.5693536
0.02061141 -0.1700336 0.1325121
0.009493861 -0.1663322 0.4386025
-6.343424E-05 -0.1658882 0.6236546
-0.006987639 -0.1820431 0.2584991
-0.01663874 -0.1829903 0.09499058
-0.01545116 -0.1814604 0.3331032
0.05890023 -0.1856401 0.06796516
0.07583843 -0.1773905 0.3259602
0.1110269 -0.1434615 0.8716659
0.1100078 -0.1720939 0.25528
0.30399 -0.1359133 0.6695514
0.07933005 -0.1709495 0.05947611
0.3221491 -0.1462126 0.5791282
0.1437744 -0.1714591 0.09060778
0.1441546 -0.1682419 0.09307243
0.2417736 -0.1156775 0.2885479
0.4308848 -0.05809616 0.4650446
0.258648 -0.1357215 0.1892976
0.3156494 -0.1152583 0.2689341
0.3708906 -0.1200066 0.2722609
0.3680356 -0.1205665 0.2550416
0.5230706 -0.1428541 0.4129449
0.4005511 -0.12567 0.2648281
0.3045769 -0.1633984 0.0926666
0.3299855 -0.1490091 0.09478432
0.3687779 -0.1697678 0.1351858
0.2987534 -0.1723328 0.1018311
0.3059282 -0.1658299 0.1071981
0.7084732 -0.1641654 0.5682063
0.6983683 -0.05437838 0.3641108
0.4737046 -0.1463505 0.1428323
0.7336792 -0.1398099 0.3971963
0.4626313 -0.1436208 0.1370501
0.6120555 -0.1477622 0.2241106
0.4423226 -0.1424217 0.1421134
0.5534556 -0.1509766 0.1857954
0.5241148 -0.1254559 0.2112034
0.5267341 -0.1276448 0.1963315
0.7088851 -0.1547777 0.3316777
0.5081436 -0.1523594 0.1038424
0.5056836 -0.1763734 0.03533782
0.4469325 -0.1794474 -0.01219916
0.3951431 -0.1707996 -0.009001419
0.3987445 -0.170894 -0.005871728
0.7362065 -0.1078769 -0.06868978
0.4347169 -0.1697034 0.09991206
0.5706121 -0.1601066 0.1885801
0.6336594 -0.1651223 0.07842425
0.7987336 -0.1341773 0.08972195
0.7876257 -0.08671597 0.006954581
0.7000322 -0.140721 0.04032311
0.7308123 -0.1512177 0.07736492
0.8791507 -0.1507822 0.2027219
0.7351717 -0.08932714 -0.02310912
0.7486799 -0.1501824 0.312208
0.6642097 -0.1048447 -0.06935082
0.7574899 -0.06697685 -0.006317243
1.271145 -0.1276137 0.0906373
0.7430673 -0.09509808 -0.08831669
0.7816125 -0.09711291 -0.06159103
0.7863783 -0.09205131 -0.06016016
0.7499422 -0.09365922 -0.1526906
0.7952262 -0.1072575 -0.1591932
0.8777484 -0.1023287 -0.0614164
0.7531369 -0.1027974 -0.09526604
0.7840706 -0.1474822 0.1969323
0.9172845 -0.1524268 0.4302572
0.792351 -0.1343729 0.1996383
1.285952 0.07495189 0.6078973
1.316586 0.07303189 0.594072
1.266782 0.074936 0.6164463
1.266452 0.05380347 -0.1132543
1.287924 0.06261389 -0.08334082
1.343867 0.08064625 0.03880957
1.264868 0.06157167 -0.1210553
1.368449 0.1978975 -0.05789739
1.311444 0.05301416 -0.03612506
1.385023 0.2321485 -0.005594224
1.309528 0.18787 -0.1448482
1.263656 0.109397 -0.1398329
1.119169 -0.166602 0.3174771
1.081007 -0.140097 0.2492654
1.135696 -0.1581462 0.1366428
1.071044 -0.1607355 0.4630334
1.000758 -0.1567151 0.4160855
1.071951 -0.1595162 0.4931056
0.9615365 -0.1311585 0.5084404
12.54083 -3.007818 9.959646
0.6821603 -0.06817983 0.336726
0.6552796 -0.0646566 0.3160869
0.655441 -0.03760268 0.3139367
0.4843181 -0.1042436 0.2206677
0.5640342 -0.1161203 0.3013431
0.4274105 0.05204616 0.4622429
0.344146 -0.1035901 0.2363874
0.3859643 -0.1552846 0.444212
0.3134226 0.03724897 0.5106685
0.3609788 -0.1195208 0.2051063
0.3191682 -0.1144043 0.2061993
0.4094906 -0.1592273 0.4990395
0.3880012 -0.1264413 0.5932514
0.3766938 -0.1345143 0.4862198
0.3262286 0.03121631 0.5179563
0.2846535 -0.126503 0.164598
0.2947481 -0.1539627 0.1351028
0.2181314 -0.04301098 0.5915515
0.2887875 -0.132172 0.69928
0.3425968 -0.1318398 0.3355245
0.2699754 -0.1063036 0.2106436
0.289925 -0.1089519 0.2106782
0.3012206 -0.1270478 0.1725782
0.1137305 -0.08450533 0.6934814
0.1872019 -0.1124407 0.223741
0.3269218 -0.1353272 0.4099895
0.4181068 -0.1416115 0.5622273
0.4216366 -0.1448347 0.5773562
0.372236 -0.1582819 0.4875211
0.3749031 -0.1529583 0.4885708
0.3622829 -0.1155531 0.472733
0.3019947 -0.119027 0.1909508
0.3250328 -0.1102788 0.2649461
0.3203041 -0.01181637 0.5206745
0.3003788 -0.1358681 0.6649975
0.2887721 -0.1229479 0.1591759
0.3008112 -0.1379438 0.5663786
0.3164542 -0.1387959 0.6539006
0.4532928 -0.1227099 0.5513943
0.4661776 -0.1632547 0.5584126
0.2789168 -0.1049923 0.2390805
0.3276147 -0.1322734 0.5431148
0.2055622 -0.01530556 0.6047948
0.2694029 -0.120989 0.1764117
0.2825149 -0.1185166 0.193753
0.2833785 -0.1188907 0.2015049
0.226567 -0.09059548 0.6389399
0.2296566 -0.1067682 0.2727156
0.234224 -0.1272501 0.1824655
0.228634 -0.1202247 0.2298918
