0.08919159 -1.024928 0.6465042
0.3945431 -0.02728131 0.5923986
0.2916657 -0.05277196 0.3360283
0.314853 -0.07297428 0.4534603
0.288958 -0.05560516 0.4054686
0 0 0
0.0596727 -0.06428051 0.5495555
0.05571354 -0.05958225 0.50764
0.06296636 -0.06526108 0.5283027
0.3482096 -0.07948542 0.3867553
0.3420032 -0.07958817 0.3795766
0.3250512 -0.08082159 0.3451246
0.3203355 -0.08013593 0.3375808
0.3374996 -0.07749279 0.3855989
0.3544156 -0.06253128 0.5780439
0.2042499 -0.08284895 0.2458302
0.2305677 -0.06335847 0.5467204
0.2440041 -0.06859307 0.5462091
0.1631128 -0.0458356 0.2935005
0.3490418 -0.0703748 0.5723643
0.3604177 -0.06629378 0.5781847
0.3361352 -0.07783097 0.5640613
0.3026613 -0.07169311 0.3639024
0.3016693 -0.07859476 0.3519289
0.305087 -0.07812743 0.4393241
0.2983993 -0.07563077 0.4431947
0.2967377 -0.07294735 0.5466534
0.256059 -0.06544635 0.3776355
0.291437 -0.06974795 0.5340226
0.2614067 -0.07056794 0.5559604
0.2636508 -0.07463056 0.5571346
0.05794626 -0.05821222 0.5687537
0.0596118 -0.07935654 0.548934
0.3574856 0.07269397 0.6095748
0.3056869 0.08579427 0.60403
0.400802 -0.07179193 0.5941055
0.3158354 -0.1011039 0.3828171
0.3938225 0.141119 0.6561484
0.3937344 0.1678602 0.6668967
0.289128 0.0804916 0.6274033
0.2462393 0.06581257 0.6200604
0.3771429 -0.08339594 0.3936244
0.4528014 0.01633708 0.6013865
0.3022592 -0.09133899 0.3064083
0.3635944 -0.1397157 0.4202596
0.7981208 -0.08047718 0.9432101
3.459907 -0.3059298 5.557326
3.582663 -0.3802194 5.738779
0.644079 -0.06943925 0.6285318
0.5567924 0.05375033 0.4409713
0.679991 -0.04681198 0.5618508
0.6952257 -0.06758963 0.5806206
0.4455918 -0.03891744 0.2226778
0.4388762 -0.04800474 0.2424004
0.4482414 -0.04556908 0.2454981
0.3787704 -0.06437799 0.3894177
0.3158837 -0.08065724 0.4480571
0.4477029 -0.02285494 0.2396198
0.4349862 -0.02217846 0.2309751
0.4835438 -0.06888814 0.3417577
0.3233186 -0.06363319 0.1243072
0.3698156 -0.05842281 0.1499472
0.37363 -0.06254704 0.1906201
0.3409958 -0.06232202 0.1404231
0.3847706 -0.06228437 0.1837818
0.3793229 -0.06220817 0.1859072
0.1754819 -0.7878785 0.2362136
0.151644 -0.8128833 0.2330476
0.2035287 -0.7768896 0.1981754
0.378831 -0.06236964 0.1884032
0.3815238 -0.06118532 0.1680583
0.3788568 -0.06245148 0.1857633
0.3842545 -0.06255126 0.1835966
0.3746846 -0.06285952 0.1866705
0.1912748 -0.793579 0.2131827
0.3695989 -0.06217584 0.1947293
0.3785659 -0.0626325 0.1883207
0.09851801 -0.7912804 0.2972724
0.08564873 -0.8689259 0.268655
-0.05913663 -1.679925 0.4713576
0.3235247 -0.06431851 0.1244096
0.1789879 -0.9024445 0.2474244
0.1584542 -0.8139583 0.2883041
0.1424928 -1.439842 0.394743
0.1759391 -0.7846689 0.2353364
0.06623632 -1.206595 0.3091135
0.1733731 -0.7026139 0.2522594
0.08321328 -0.8451424 0.3477466
0.2397832 -0.5815619 0.1798375
0.1041424 -0.7807533 0.2484007
0.1755887 -0.7852047 0.2355861
0.09109038 -0.8231302 0.3056419
0.1735593 -0.797873 0.2373201
0.2352679 -0.6569985 0.1935849
0.1781189 -0.8793856 0.2597117
0.1428387 -0.9237931 0.3168393
-2.090194 -0.1878342 -1.239322
0.3411717 -0.06425381 0.1412368
0.1981959 -0.8201936 0.254156
0.09827234 -0.7828839 0.2171094
0.1998154 -0.7993844 0.2495342
0.229452 -0.7488025 0.2103835
0.09650104 -0.7971098 0.2979452
0.1175092 -0.7819878 0.2558016
0.3413914 -0.06425471 0.1412222
0.1612874 -0.7942636 0.2819081
0.09590447 -0.7999547 0.2988906
0.09882811 -0.8033177 0.252921
0.09926695 -0.8007666 0.2519285
0.1200007 -0.7704947 0.2529938
0.1861675 -0.8034497 0.2429062
0.09914078 -0.8024672 0.2521685
0.08708508 -0.8281097 0.3423722
0.09430882 -0.80237 0.2206973
0.09435454 -0.8065727 0.3003888
0.1664411 -0.8262126 0.2781702
0.1115473 -0.8121563 0.2625479
0.1735611 -0.7979508 0.2375053
0.2296957 -0.7471008 0.2104423
0.09224869 -0.8750529 0.3168787
0.1599359 -0.7997588 0.2771904
0.08743387 -0.8249374 0.3409551
0.09764442 -0.8089176 0.2540906
0.1880272 -0.7878336 0.2396867
0.1591176 -0.8077192 0.2789976
0.09781097 -0.8089985 0.2539233
0.1722189 -0.8063184 0.2389343
0.1071433 -0.8028824 0.2963164
0.1877356 -0.7930982 0.2407267
0.04879974 -0.8830988 0.2949328
0.04383445 -0.8570957 0.2552372
0.03957857 -0.8477339 0.2633755
0.1589334 -0.8062458 0.2852331
0.09049237 -0.8163025 0.2235553
0.10345 -0.816435 0.3002168
0.1866191 -0.7964342 0.2414284
0.3040934 -0.05522591 0.5768763
0.2726228 -0.05185065 0.5918214
0.3004326 -0.06099816 0.57658
0.3470146 -0.07906672 0.6238326
0.36702 -0.09031019 0.7148744
0.3163743 0.1301037 0.6587805
0.2964709 0.1209698 0.6564661
0.2576382 -0.06783988 0.6105721
0.2891642 -0.06877212 0.6346426
0.2478243 0.09449343 0.6364348
0.2732771 0.1192604 0.6540501
0.236895 0.07197312 0.6471178
0.260676 -0.05738024 0.6100862
0.2259904 0.06574298 0.6293757
0.2262199 0.1017638 0.6383542
0.2251751 0.09270136 0.6347823
0.001925975 -0.06954208 0.5667684
-0.01319019 -0.07271747 0.5537844
-0.01513055 -0.07602079 0.5461895
0.239742 -0.06925009 0.5089048
0.2293794 -0.07496457 0.5348157
0.3002149 0.0637262 0.9279847
0.05498239 -0.08161311 0.4474208
0.2969111 -0.04511517 0.5918285
0.327063 -0.07281882 0.4928685
0.2380412 -0.0726189 0.5084997
0.2012525 -0.04039048 0.5666649
0.08125287 -0.07660203 0.3366379
0.04396209 -0.0577869 0.3840485
0.2101829 -0.07689324 0.5374424
0.2394184 -0.08496854 0.2620904
0.07470036 -0.0862045 0.3419031
0.1494418 -0.08031857 0.2293219
0.1823674 -0.0435711 0.5751764
0.1972511 -0.08124301 0.2834827
0.1212261 -0.08530754 0.3011128
0.0314676 -0.07845326 0.4081722
0.07450745 -0.08464493 0.3408695
0.1773979 -0.05356215 0.5966761
-0.06159282 -0.1460582 0.6041621
0.2713776 -0.06591342 0.610033
0.1905405 -0.05973271 0.5318736
0.1497528 -0.08575737 0.2309305
0.2400652 -0.08309152 0.2595695
0.198369 -0.07969236 0.2810066
0.24966 -0.08420502 0.2403162
0.4204564 -0.007354971 0.8837134
0.3100778 -0.2926561 0.5905392
0.5845501 -0.2675195 0.8396949
1.069152 -0.2307141 1.203501
0.5559233 -0.03881219 0.9028756
0.5789953 -0.02255555 0.9428729
0.349941 -0.1984112 1.29659
0.3157514 -0.1962494 1.293743
-0.3194343 -0.6907026 2.123666
-0.5735701 0.8070037 2.235532
-0.4999523 0.03520467 0.7966822
-0.5325741 -0.3009919 1.890948
-0.5703075 0.8472949 2.094081
-0.5161153 0.8228605 2.021656
-0.5637187 0.8404535 2.148243
-0.5796319 0.7876211 2.156774
-0.3717851 0.07921062 1.584659
-0.2424409 -0.2562844 1.509265
-0.2430381 -0.2826978 1.514549
-0.3353589 0.07965295 1.625289
-0.3374946 -0.2315596 1.629942
-0.307424 -0.3152986 1.531686
-0.3312384 -0.276009 1.408442
-0.3910217 -0.2332061 1.602973
-0.4359035 0.07809316 1.554873
-0.4709019 -0.2434952 1.561036
-0.4451053 0.0722269 1.56395
-0.3330363 0.07302505 1.583769
-0.520814 -0.4795789 1.988597
-0.466237 -0.2339292 1.631172
-0.3564299 -0.2412637 1.426421
-0.323584 -0.3182392 1.497357
-0.449006 -0.212237 1.520023
-0.3913957 -0.2445329 1.537915
-0.677195 -0.0194203 1.775047
-0.7489458 -0.190679 1.883829
-0.9269327 -0.150792 1.959656
-0.4453388 -0.9329069 1.606229
-0.6212899 0.00623142 1.601989
-0.3695959 0.06978925 1.541753
-0.4217559 -0.9079625 1.567586
-0.5999539 -0.1546584 1.730052
-0.66801 -0.02624405 1.731454
-0.7274494 -0.181403 1.625933
-1.000586 -0.09082459 2.136939
-0.6456707 -0.2130341 1.502984
-0.8841835 -0.2070798 1.85993
-0.9864878 -0.117969 2.145663
-1.398184 -0.2120278 2.527203
-0.6224727 0.01175689 1.572721
-0.4012241 0.02230302 0.6937532
-0.4078704 0.0240934 0.6835982
-0.3887737 -0.1842892 0.6231365
-0.3954596 -0.08198794 0.6454743
-0.3938594 -0.1809456 0.6127876
-0.4137338 -0.1149994 0.6194422
-0.4734695 0.04759772 0.6054581
-0.400616 -0.05040717 0.6482844
-0.4630868 0.007105201 0.5612994
-0.5258578 -0.02112103 0.4889299
-0.4336604 -0.04987052 0.5518527
-0.5781429 -0.005623966 0.470826
-0.5827631 -0.004148036 0.4668978
-0.5665717 -0.005256444 0.4588637
-0.5964335 -0.00332883 0.4577888
-0.5775769 -6.02901E-05 0.444743
-1.750449 -0.7841925 -0.02736253
-2.483778 -0.4947093 1.320872
-2.496896 -0.4331744 1.22517
-2.589586 -0.518736 1.3031
-3.021222 -0.4102098 1.610471
-2.91285 -0.5135537 1.58105
-2.783061 -0.7486516 1.903272
-2.768501 -0.4882273 1.850104
-2.628508 -0.5412927 1.793505
-2.827988 -0.7329609 1.827368
-3.148642 -0.1757904 1.521317
-2.70381 -0.4400375 1.791857
-1.91982 -0.1476901 1.430609
-1.935211 -0.1436743 1.426375
-2.784367 -0.8759649 1.813891
-2.111831 -0.01778203 2.146138
-2.14398 -0.699806 2.286705
-2.510406 -0.4688142 1.239247
-2.827331 -0.7687345 1.82206
-1.838763 -0.01396075 2.153261
-1.488487 -0.2887629 1.807122
-1.649971 -0.3037802 2.018835
-1.664996 -0.3695543 1.935852
-1.411463 -0.2383662 1.76889
-0.8587619 -0.2241639 1.069394
-1.535441 -0.4304156 1.925063
-1.770034 -0.5711412 2.076075
-1.512861 -0.3941894 1.29124
-1.487778 -0.167484 2.177124
-1.879206 -0.026434 2.171088
-1.652692 -0.2797617 2.001557
-1.459524 -0.2138668 2.212904
-1.398618 -0.2294505 2.126051
-1.341979 -0.4751093 1.276142
-0.7344964 -0.2148602 1.127024
-2.065912 -0.7984011 2.401095
-2.047052 -0.5666025 1.548298
-1.528423 -0.4673758 1.802911
-1.414823 -0.2623336 1.218516
-0.8035148 -0.2123308 1.20346
0.1233744 -1.136488 0.7380517
-0.2429388 -0.100428 0.6046219
-0.2143635 -0.09514195 0.5796435
-0.2119435 0.09995952 0.6646025
-0.1992523 -0.108229 0.6180184
-0.3274449 0.09863359 0.6629555
-0.2693234 -0.1167662 0.6171792
-0.2924974 0.3402062 0.6916642
-2.552023 -0.05464205 0.8285814
-2.945177 -0.05294681 0.9567873
-2.923488 -0.05347976 1.006661
-1.803349 0.4435917 0.7383403
-1.441873 -0.1528771 0.4960258
-1.683477 -0.1139323 0.6608015
-1.932894 -0.1387221 0.6189602
-1.8487 -0.1299683 0.5469413
-1.305892 -0.4307637 0.9628291
-1.153091 -0.156588 0.7662596
-1.056046 -0.1528734 0.5960354
-1.04292 -0.1933782 0.636613
-0.5166217 0.03049633 0.03617699
-3.049104 -0.01200709 -0.1722734
-0.5437635 0.1331394 -0.1204505
-0.5105429 0.08607653 -0.1206699
-0.5413657 0.1223944 -0.1661249
-3.300677 -0.4609418 -0.7706685
-2.73946 -0.6958144 -0.9713618
-2.471004 -0.5281172 -1.123826
-2.372081 -0.4823509 -1.063574
-3.16224 -0.4376802 -0.452665
-2.242857 -0.359546 -1.163649
-2.974463 -0.3417066 -0.4819281
-2.47917 -0.5268175 -1.140578
-2.589846 -0.04804814 -1.279091
-2.697184 -0.4416916 -1.284152
-2.570417 -0.8640018 -1.009654
-3.064028 -0.8303947 -0.7918899
-3.307262 -0.8984951 -0.7725631
-2.529609 0.2926619 -1.379814
-2.162498 -0.1221049 -1.271456
-2.525826 0.05577689 -1.34061
-2.070266 -0.3919249 -1.278782
-2.096166 -0.4163472 -1.335691
-2.127911 -0.2002066 -1.252346
-2.691044 -0.7675798 -0.945388
-2.27385 -0.1544859 -1.32896
-1.886401 -0.3631095 -1.384281
-2.091862 -0.3182948 -1.391243
-3.250659 -0.4078431 -0.5432186
-3.246399 -0.4710603 -0.7741833
-3.086785 -0.5323983 -0.7208003
-2.608332 -0.4670802 -0.9601392
-2.754943 -0.4984231 -1.079187
-2.349834 -0.5351161 -1.108512
-2.135073 -0.450736 -1.187919
-1.636741 -0.3507286 -1.310714
-2.213725 -0.7581009 -1.122146
-2.465952 -0.8048681 -0.9872733
-2.337047 -0.722712 -1.164023
-1.695632 -0.4316897 -1.372555
-2.234212 -0.5993037 -1.116123
-3.104848 -0.7027546 -0.7233486
-2.294326 -0.3726233 -1.182367
-2.318611 -0.4747077 -1.086953
-2.544536 -0.4623292 -0.9168221
-2.529653 -0.442768 -0.9465678
-2.085256 -0.2896009 -1.335791
-2.091661 -0.2143759 -1.528271
-2.048745 -0.3029838 -1.380968
-2.984695 -0.5044811 -0.7135685
-1.923013 -0.2039245 -1.478667
-2.113235 -0.2730167 -1.375895
-2.542429 -0.41566 -0.9411813
-2.002611 -0.1978236 -1.298929
-2.096048 -0.2243095 -1.506438
-2.446952 -0.5185565 -1.062877
-2.661705 -0.3542661 -1.294526
-2.033456 -0.2123407 -1.313401
-3.028923 -0.4314941 -0.5036346
-1.938563 -0.3947883 -0.3349829
-2.961145 -0.6513629 -0.7897469
-2.835241 -0.8070649 -0.4025918
-3.402092 -0.5380501 -1.164244
-2.18747 -0.1822364 -1.407568
-2.186325 -0.1718018 -1.526902
-1.782845 -0.1400086 -0.3331121
-3.037253 -0.3504358 -0.5032119
-3.397129 -0.4058144 -1.201192
-3.055453 -0.4062511 -0.4893188
-2.982403 -0.4408361 -0.7419034
-3.039402 -0.3645833 -0.540043
-2.985644 -0.5455475 -0.3172867
-2.248348 -0.07348615 -1.583544
-0.5603977 -0.4351888 0.826595
-0.4983251 -0.337495 0.4512891
-1.008786 -0.595532 0.8355032
-0.8925567 -0.5846363 0.6845381
-0.4014454 -0.3165866 0.3847021
-0.2676952 -0.3550431 0.490387
-0.1713476 -0.8446093 0.6742587
-0.1739513 -0.7224548 0.8950465
-0.1379275 -0.7869267 0.8360992
-0.3448929 -0.3464451 0.348521
-0.3063354 -0.3160698 0.4543982
-0.4470776 -0.3061542 0.4507687
-0.2629632 -0.3387448 0.3766679
-0.2839317 -0.2967172 0.3893988
-0.4139408 -0.3027965 0.4181178
-0.3533385 -0.3459028 0.3642445
-0.1471562 -0.681491 0.9609702
-0.03867184 -0.09159212 0.3903336
0.01239353 -0.09145054 0.3996897
-0.1873879 -0.03328657 0.5757647
-0.1050161 -0.09454069 0.523229
-0.005732968 -0.08446725 0.488486
-0.004150242 -0.09548892 0.4833751
-0.3547068 -0.04258285 0.8271753
-0.2457961 -0.08978453 0.5057741
-0.467217 -0.07717671 0.8856945
-0.2262362 -0.07674365 0.6146816
-0.1884786 -0.01355085 0.5841597
-0.195405 -0.08055015 0.6116582
-0.5399753 0.05488802 0.00869441
-0.5290707 0.0432981 0.005942404
-0.5168676 0.02153373 0.00637877
-0.5097354 -0.006762415 -0.008011878
-0.5024451 -0.02951825 -0.0003786683
-0.4994728 -0.07015459 -0.006549984
-0.4858398 0.03381535 -0.08539476
-0.4881745 0.06510011 -0.1332864
-0.476025 -0.04855211 -0.0692983
-0.9634587 -0.1689369 0.5464017
-0.4642761 -0.04339188 -0.07200113
-0.6114353 0.1541728 -0.08699358
-0.4991966 0.03794611 -0.05886891
-0.5634511 0.09839483 0.008642942
-0.5451627 0.1230083 -0.17151
-0.4966149 -0.01416616 -0.03382421
-0.6001052 0.1526291 -0.1513876
-0.5816587 0.1585566 -0.1376486
-2.915747 -0.4049897 -0.7590989
-3.13757 -0.7195697 -0.7468976
-3.129583 -0.7085413 -0.823296
-3.084212 -0.3560618 -1.150039
-2.50055 0.5893014 -1.289951
-2.4236 -0.4218926 -0.9366252
-3.215223 -0.399417 -1.15042
-1.469906 -0.7218251 -1.159684
-0.9844487 -0.6319075 -1.125443
-0.4876159 -0.3411396 0.3973414
-0.4784696 -0.4452571 0.3358147
-0.9708817 -0.9091836 0.499087
-2.246931 -0.1349989 0.7037177
-2.862456 -0.9189343 0.8268307
-0.5678902 -0.2419755 0.119215
-0.0730603 -0.9384207 0.4808298
-0.2734195 -0.958842 0.4997493
-0.02803809 -1.031232 0.6023377
-0.2430957 -0.9155415 0.5743129
0.3345239 -0.3435109 1.089707
0.3221182 -0.2171191 0.8350815
0.2762433 -0.4664532 0.6516302
0.2931455 0.03656938 0.7528902
0.1338927 -0.2615079 0.7710963
0.2532402 -0.1999985 0.7857385
0.2887723 -0.2178207 0.8081066
0.2662099 -0.1600963 0.7365251
0.3046586 -0.4345918 0.8589681
0.2472441 -0.1965755 0.7299279
0.2459127 -0.2276679 0.7247152
0.7718368 -0.3910646 6.150282
0.2415285 0.02649122 0.8346728
0.278421 -0.4440083 0.8873208
0.2678247 -0.1961444 0.7278494
0.3226966 -0.405796 0.7245482
0.2942992 -0.1964161 0.7280122
0.2377387 -0.1943677 0.7223572
0.2273666 -0.4070403 0.7312883
0.2131452 -0.4091063 0.733839
0.2428984 -0.1949385 0.7272964
0.2424442 -0.2257735 0.7217448
0.2338593 -0.4030577 0.720207
0.2132391 -0.4031853 0.7847363
0.4273443 -0.4099103 0.6123602
0.2042147 -0.4132684 0.7774327
0.3729493 -0.333299 0.7252738
0.1969546 -0.4093893 0.8028383
0.2621365 -0.3877887 0.7753979
0.3686702 -0.2925866 0.6691047
0.3811286 -0.2966974 0.6668214
0.2889758 -0.3556405 0.777172
-1.579526 0.09024488 2.713892
0.3798885 -0.3505312 0.4003992
0.1366246 -0.2531552 0.6385134
-0.1111191 -0.288881 0.6989126
-0.2096218 -0.02507651 0.7180021
-0.153689 -0.3279021 0.6756928
-0.4062733 0.1339639 0.5848055
-0.3347219 -0.01647918 0.6204061
-0.3257841 -0.009971432 0.6159947
-0.3928736 -0.08297321 0.5346853
-0.3090417 -0.3573633 0.3966988
-0.1114022 -0.28246 0.286706
-0.1359745 -0.1344689 0.2710537
-0.1151237 -0.3131003 0.3028677
-0.2576002 -0.002685764 0.6755786
-0.3600385 -0.006505991 0.6097692
-0.1790259 -0.276681 0.6645617
-0.3635405 0.1685036 0.5753747
-0.2821203 -0.3620582 0.3471435
-0.3932982 -0.3444759 0.4068033
-0.5136912 -0.3455256 0.4109194
-1.238558 -0.4700406 0.436371
-1.237258 -0.4530988 0.406365
-1.616024 -0.2674404 0.2428717
-3.00165 -0.3847063 0.4339349
-2.612807 -0.3330832 0.1866675
-2.031369 -0.4085817 0.3422938
-0.7167758 -0.1555217 -0.1719348
-0.7224556 -0.1615239 -0.1580561
-0.7119305 -0.181213 -0.1714349
-0.7008398 -0.2092922 -0.1806491
-0.6808619 -0.2473927 -0.1984772
-0.7005435 -0.1136902 -0.2025286
-0.6787779 -0.1597001 -0.2480139
-2.923738 -0.2296981 -0.2564147
-2.905516 -0.2073526 -0.460624
-3.177188 -0.2263755 -0.4439629
-2.614444 -0.39574 0.0008954108
-0.6465344 -0.1445524 -0.3010181
-0.6445295 -0.1504696 -0.3028937
-0.651412 -0.123224 -0.3383178
-0.6562362 -0.1248729 -0.3471964
-0.6471657 -0.1320741 -0.3330309
-0.6567347 -0.1476139 -0.2480307
-0.6756651 -0.1114722 -0.3039547
-3.080574 -0.8971779 -1.087104
-0.6496974 -0.1416367 -0.2899785
-1.856627 -0.2549283 -0.6490029
-2.995858 -0.7243671 -1.076549
-2.535516 -0.4302688 -0.8190716
-0.6241057 -0.2246186 -0.2435245
-2.659813 -0.3739814 -0.3111262
-0.6679428 -0.1205769 -0.3777893
-0.6442145 -0.1321593 -0.3465446
-0.6943557 -0.08926801 -0.3165682
-0.6302864 -0.1923504 -0.2999707
-0.6914787 -0.143942 -0.1885774
-0.655938 -0.1308025 -0.3036748
-0.6279299 -0.2068291 -0.2994654
-0.6415088 -0.1739594 -0.3026264
-2.567156 -0.3225544 -1.605841
-0.6346821 -0.200599 -0.2893615
-0.679686 -0.1233923 -0.2759706
-2.479235 -0.2370351 -0.4939331
-2.381173 -0.3409826 -0.4050969
-0.6620592 -0.1737014 -0.4306585
-3.192855 -0.6653531 -1.177547
-3.136834 -0.7068172 -1.141969
-2.584477 -1.075823 -1.355452
-2.270841 -0.5965731 -1.487106
-3.235361 -0.6307838 -1.52936
-2.705823 -0.2617891 -1.677635
-2.775089 -0.8266596 -0.2451517
-2.745426 -0.8157516 -0.3065164
-2.5432 -0.3779714 -0.4027767
-2.069953 -0.569522 -0.1940941
-2.128826 -0.04593435 -1.621265
-2.411707 -0.0973876 -1.587659
-3.174018 -0.9344187 -0.432408
-2.196203 -0.02456267 -1.61968
-3.100585 -0.1964096 -0.4628078
-2.423619 -0.04063562 -1.59464
-2.253719 -0.0417975 -1.592665
-2.206887 0.3015184 -1.610099
-2.601809 -0.3197256 0.2190641
-2.089575 -0.2591323 0.4737633
-0.4121886 -0.3012432 0.445841
1.076383 -4.100976 17.69448
0.7567139 -3.477552 15.26763
3.945624 -5.832426 27.52682
3.202599 -2.051905 12.3539
-0.3716866 -0.1628172 5.527191
-0.8166168 -1.539037 3.485477
0.8907984 0.8131638 3.996685
0.9588124 -0.9393958 3.042621
0.870402 -1.484229 3.046007
0.1025593 -1.150018 2.769639
0.9616826 -1.041043 2.809487
-0.2397698 -0.9530453 2.622055
0.6891104 -0.9183698 2.866529
0.5505006 -0.724218 3.487237
1.00108 -0.8997095 2.96658
0.511402 -0.9302172 2.84586
-0.03329594 -1.068819 2.86378
0.9747887 -1.068441 2.919996
-0.3437077 0.3380365 4.934954
1.01731 -0.5323803 3.481759
0.504832 -0.7708824 3.339562
0.617581 0.07794155 3.078205
-0.1220996 -0.7951332 3.09728
0.7712058 -0.4807702 3.257491
0.7687774 0.0904213 3.338476
-0.1001159 -0.1125936 4.70562
-0.5644391 0.3634648 5.183706
-0.09240814 0.9119026 5.40415
-0.1503454 0.9288778 5.569654
0.6610616 0.942494 4.593499
0.5496991 0.8256063 4.343348
0.3420882 -0.7205834 3.219373
-0.5149131 0.3778014 5.136887
-0.8066472 1.264064 9.093022
0.6784479 -0.2028145 3.899806
-0.6583722 0.5350775 5.160018
0.7256579 -0.5454069 3.105042
0.7448385 0.797281 4.22575
0.2824026 1.034186 5.300853
0.04114754 -0.7294687 1.725551
0.7248057 0.8368438 4.097771
0.2264504 -0.5794378 1.548752
0.1637578 -0.5438396 1.520869
0.03129649 -0.506502 1.444264
-0.03933968 -0.5673884 1.41143
-0.002537463 -0.5490338 1.431012
-0.161821 -0.4076644 1.4533
-0.1742633 -0.5596654 1.336602
-0.02297338 -0.5186882 1.389976
0.1596709 -0.3893439 0.7888371
-0.0228745 -0.1239305 0.5295011
0.1108728 -0.1728594 0.9983494
-0.01435321 -0.1832056 1.028832
0.03005695 0.2052522 0.9617773
-0.2179488 -0.2542289 1.076932
0.05071615 -0.1735428 0.993443
0.001301758 -0.2031292 0.9903057
0.0009491742 -0.1749789 0.9911439
0.0716112 -0.1926061 0.9851249
0.0735953 -0.1751234 1.001343
0.2196939 -0.331955 1.014097
0.2573031 -0.3307465 1.007863
0.3873134 -0.1305608 0.7737475
0.3855218 -0.1824137 0.767162
0.3828348 -0.2426145 0.7503824
0.3837369 -0.1986556 0.7671285
0.3618497 -0.3472595 0.3074874
0.4195569 -0.3490729 0.2138422
0.2979558 -0.3305402 0.3411033
0.3524345 -0.3226344 0.3828095
0.3383215 -0.3178192 0.4037687
0.4738109 -0.3376638 0.5979202
0.3479148 -0.3079681 0.3793319
0.3328545 -0.3155624 0.3249266
0.3138946 -0.3320619 0.3297401
0.3781086 -0.3402104 0.4106298
0.455444 -0.3330008 0.5957515
0.4484606 -0.3312534 0.5530227
0.3185862 -0.3177724 0.3047711
0.4915521 -0.3332336 0.6342549
0.3669156 -0.3274975 0.4041568
0.3431788 -0.3129643 0.3096263
0.46468 -0.3279756 0.5733331
0.3036514 -0.3147151 0.3414342
0.3585605 -0.3087748 0.3254838
0.3143142 -0.3191722 0.2811481
0.3757653 -0.3042884 0.3407044
0.5290921 -0.2450259 0.4899139
0.51758 -0.245417 0.5020941
0.3652685 -0.3054715 0.3510796
0.3723682 -0.3132924 0.2822975
0.401233 -0.3135972 0.3139075
0.575612 -0.3497804 0.5737541
0.3926899 -0.3030543 0.3273706
0.3731624 -0.3184134 0.2572003
0.4202698 -0.3046696 0.2907852
0.4324262 -0.3055278 0.2948747
0.3388896 -0.3193043 0.31891
0.5787498 -0.3345445 0.4543158
0.4010883 -0.3051067 0.3164848
0.3417181 -0.3292557 0.2858133
0.03099263 0.2048596 0.9795642
-0.07921082 -0.172714 0.7402265
-0.1410302 -0.03266796 0.9393517
0.2188034 -0.3558125 0.8265247
-4.263384 -1.39648 5.6286
-0.1535594 0.04315294 0.9987363
-0.07462467 -0.1115836 0.5120565
-0.2591174 -0.3455501 1.086528
0.05311901 -0.3657556 0.9436718
0.02201369 -0.3475215 0.8933005
0.00283365 -0.1907968 0.9317702
0.02756026 -0.2137385 0.9222291
-0.05094108 -0.2791021 1.385586
-0.1437717 -0.2782782 1.758645
-0.1165359 -0.2048499 0.5392281
-0.253136 -0.1245181 0.6270286
-0.2519439 -0.453542 2.808727
0.03723298 -0.4436689 2.434546
-0.05625304 -0.5126499 2.435338
-0.1486312 -0.3932139 2.329124
-0.06803097 -0.3897009 2.74002
-0.2005675 -0.2309625 3.101548
-0.2276301 -0.4922262 2.675313
-0.0352039 -0.409009 2.337518
-0.1838257 -0.1861576 3.009103
-1.518001 -0.06636113 2.696187
-0.1046794 -0.1608595 0.5574268
-0.1507967 -0.4312272 0.3811215
0.3398603 -0.3751761 1.404316
-0.2728178 -0.2075777 0.5247635
-0.2261493 -0.2517608 0.5564098
0.4249789 -0.3773548 2.078581
-0.186347 -0.1070657 0.6009216
-0.1160633 -0.09931383 0.6524121
-0.1209279 -0.143147 0.6083853
-0.1462843 -0.1861666 0.5755734
0.2544245 -0.3817188 1.4177
0.4250486 -0.3156894 2.53383
-0.2542438 -0.1793945 0.5355707
-0.1818889 -0.1085785 0.5899127
-0.2743902 -0.1369825 0.5620055
-0.347273 -0.1066585 0.600788
-0.2217299 -0.2490394 3.423415
-0.2830248 -0.07515116 0.7491804
-0.3212695 -0.09887066 0.5653495
-0.3510653 -0.1507004 0.5754524
-0.396796 -0.1503212 0.5929435
-1.592152 -0.3743887 3.032597
-1.737812 -0.2686938 4.016938
-0.4130748 -0.1648669 0.5978038
-0.4040965 -0.1800675 0.5989577
-0.1424952 -0.1756897 0.6048779
-0.224113 -0.1743389 0.5615759
-1.587975 -0.1670141 2.802487
-1.714718 -0.1424942 3.310668
-1.493337 -0.5669464 2.878432
-1.416731 -0.7056789 2.326853
-1.515084 0.08168842 2.403487
7.136714 -3.452704 20.5749
5.170106 -6.974984 14.97265
6.348745 -9.460264 19.37218
8.031613 -13.42057 25.10888
6.092685 -12.38073 32.43991
-0.109064 0.1336814 1.089331
-0.2081899 0.7482074 1.743031
-0.5718849 -0.1388083 1.839611
-0.2238306 -0.1294848 1.28653
-0.2251811 -0.3893033 1.795723
-0.2132928 0.1567638 1.414273
-0.7132823 -0.1142354 2.129178
-0.2972893 -0.1111005 1.031399
-0.6569566 -0.04503964 2.046838
-0.09770701 0.1587331 1.407383
-0.2174191 0.1499733 1.388164
-0.3281491 0.12908 1.297185
-0.4020773 0.0563293 1.614851
-0.6057049 -0.1156645 1.904622
-0.2452605 0.1380178 1.436589
-0.3229534 0.168709 1.429144
-0.5222353 -0.1491081 1.936755
-0.1297662 0.1813342 1.44509
-0.3270981 0.1830588 1.487714
-0.4269049 0.06131973 1.812429
-0.2805201 0.1048013 0.6171853
-0.2083557 0.7858217 1.757726
-0.2562529 0.7866887 1.75367
-0.2690141 0.814188 1.737544
-0.296895 0.03297055 0.5163726
-0.2885695 -0.04918972 0.4837727
-0.2943365 0.02838594 0.4989163
-0.2897885 -0.08329904 0.471016
-0.3038831 0.08101647 0.5171558
-0.3001121 -0.08630835 0.4741353
-0.3138421 0.09758709 0.5232174
-0.3436879 0.1427703 0.5633221
-0.3140935 0.1214956 0.577128
-0.306788 0.08300413 0.5187328
-0.3374915 0.1243091 0.4927607
-0.3325571 0.1130634 0.5033749
-0.3484569 0.007342145 0.4262561
-0.4658402 0.1151033 0.4039941
-2.196295 -0.3930624 1.213523
-3.378222 2.172546 1.702905
-2.650715 0.5873719 1.256637
-2.61323 -0.5189832 2.101716
-2.588608 0.1472221 1.035409
-2.42412 0.1731277 0.9073831
-2.549018 0.1347181 0.9829258
-2.43001 0.3045799 0.5561261
-2.525203 -0.4699531 1.508591
-2.374688 0.3203183 0.5436961
-2.527465 0.2714861 0.6183581
-2.640825 0.2522438 1.127922
-2.440387 0.04885525 0.6448227
-2.339948 0.2335707 0.5169206
-2.290252 -0.1508565 0.8109048
-2.335948 -0.1277572 0.7783607
-2.534478 -0.1368569 0.761008
-2.513484 -0.0491298 0.6393389
-2.37566 0.1120906 0.5547101
-2.411456 -0.006905019 0.5153359
-2.043655 0.1389695 2.381756
-2.440752 0.5982672 0.8888139
-2.541528 0.6168971 0.8836804
-2.39489 0.5937321 0.7489814
-2.283354 0.5432994 0.3309394
-2.430858 0.3638817 0.6507474
-2.294579 0.2756281 0.4471948
-2.751419 -0.2609791 1.281082
-2.498069 -0.3828076 1.425262
-2.315849 -0.2602189 2.126705
-2.939875 -0.3099231 1.788818
-2.654987 0.1684892 1.158501
-2.655629 0.6373599 1.162818
-2.562 0.1638132 0.9625263
-2.738313 0.01254341 1.288067
-2.45843 0.3367438 0.900616
-1.745184 0.07057613 2.304156
-2.639127 -0.4299386 1.608217
-2.511119 0.1089891 0.9366795
-2.507447 -0.3247307 1.871238
-2.740191 -0.1743211 1.179044
-0.4730172 0.1188759 0.3999064
-0.5270607 0.06952071 0.3327418
-2.366273 -0.8533552 1.453624
